55.9456	76.7595	72.2863
56.1154	76.2426	72.8727
56.3203	75.6983	73.4221
56.5246	75.1524	73.9701
56.7733	74.6007	74.4933
57.1047	74.1123	75.0333
57.377	73.7422	75.6882
57.4805	73.439	76.4213
57.4666	73.1933	77.1825
57.4471	73.0568	77.9705
57.391	72.901	78.7532
57.3034	72.7369	79.5312
57.2219	72.5518	80.3053
57.2117	72.3387	81.0763
57.2435	72.1257	81.8467
57.2883	71.9208	82.6188
57.3715	71.7276	83.3906
57.5144	71.5339	84.1535
57.6937	71.3467	84.9104
57.9297	71.1976	85.6601
58.2164	71.0529	86.3928
58.5315	70.9001	87.1121
58.8502	70.7813	87.8362
59.1587	70.7102	88.5709
59.4533	70.6778	89.314
59.7276	70.6717	90.0655
59.966	70.6728	90.8291
60.1653	70.6661	91.6038
60.3293	70.6516	92.3867
60.4666	70.6271	93.1745
60.5857	70.5929	93.9648
60.6909	70.5403	94.7561
60.7868	70.466	95.5469
60.8608	70.4127	96.3417
60.8843	70.4486	97.1405
60.8635	70.5951	97.9267
60.84	70.837	98.6889
60.8252	71.1421	99.4283
60.8112	71.4897	100.149
60.7694	71.8139	100.879
60.6305	72.0973	101.614
60.3679	72.3109	102.339
60.0105	72.4353	103.044
59.611	72.4716	103.736
59.185	72.4113	104.41
58.7144	72.2078	105.024
58.2437	72.0043	105.638
57.7926	71.5728	106.139
57.4405	71.0756	106.657
57.1421	70.629	107.25
56.853	70.1941	107.856
62.6847	85.0901	55.3737
62.1538	85.1803	55.9653
61.6379	85.082	56.5688
61.1313	84.779	57.1087
60.6919	84.4361	57.6826
60.328	84.1167	58.3194
59.9646	83.8605	58.9845
59.6257	83.5791	59.6523
59.2935	83.3105	60.3287
58.9861	83.0595	61.0233
58.7125	82.7686	61.7165
58.4751	82.4632	62.4167
58.2955	82.1644	63.1368
58.1087	81.8502	63.8484
57.9482	81.539	64.5677
57.815	81.2256	65.2916
57.6806	80.898	66.009
57.4735	80.5456	66.6967
57.2181	80.1879	67.3651
56.9194	79.8234	68.0116
56.6241	79.4506	68.6549
56.3639	79.0519	69.2978
56.1373	78.6175	69.9302
55.962	78.1857	70.5804
55.8698	77.7448	71.2416
55.9076	77.2589	71.876
56.0247	76.7554	72.4865
56.2227	76.2233	73.0502
56.4406	75.6655	73.5807
56.6522	75.0975	74.1027
56.914	74.5317	74.6041
57.239	74.0716	75.1721
57.4939	73.7264	75.8473
57.5517	73.4387	76.5915
57.5238	73.2169	77.3596
57.4813	73.0783	78.1464
57.4054	72.9177	78.9264
57.3016	72.7528	79.7023
57.2364	72.5595	80.4759
57.2326	72.3466	81.247
57.2722	72.1315	82.0165
57.315	71.9281	82.7891
57.4123	71.7348	83.5592
57.561	71.5413	84.3211
57.7511	71.3586	85.0764
58.0004	71.2262	85.825
58.2937	71.0734	86.5534
58.6112	70.9258	87.2727
58.9234	70.811	88.0003
59.2288	70.7466	88.7369
59.5171	70.7192	89.4826
59.7814	70.7124	90.2377
60.0117	70.7166	91.0038
60.2011	70.7085	91.781
60.3573	70.6931	92.5655
60.4905	70.6675	93.3539
60.6074	70.633	94.1445
60.7105	70.5803	94.9361
60.8066	70.5048	95.7267
60.8709	70.4717	96.5235
60.8871	70.5351	97.3208
60.8694	70.7035	98.1027
60.8554	70.9555	98.8618
60.8485	71.2762	99.5947
60.8359	71.6173	100.318
60.7875	71.9332	101.052
60.739	72.249	101.785
60.5926	72.5246	102.522
60.3307	72.7299	103.249
59.9787	72.8525	103.957
59.5737	72.9013	104.645
59.1361	72.9001	105.315
58.6915	72.8405	105.977
58.2561	72.7008	106.634
57.9509	72.4047	107.311
57.8008	72.0312	108.003
57.7441	71.6998	108.729
61.7093	85.0064	56.2572
61.2276	84.6362	56.7776
60.8074	84.228	57.3224
60.4747	83.8972	57.9704
60.1267	83.5872	58.6206
59.8066	83.3033	59.2966
59.5002	83.0563	59.9931
59.2016	82.7918	60.6866
58.931	82.5093	61.3844
58.7047	82.1997	62.0865
58.5213	81.9027	62.8063
58.3122	81.5747	63.5054
58.0997	81.2193	64.1899
57.9179	80.8735	64.888
57.6938	80.5083	65.5636
57.4393	80.1311	66.2215
57.1575	79.7725	66.8789
56.8327	79.4122	67.515
56.5224	79.0427	68.1531
56.2198	78.649	68.7803
55.9589	78.2164	69.4007
55.7418	77.7582	70.0194
55.5949	77.3062	70.6629
55.5426	76.842	71.3124
55.5672	76.3779	71.9636
55.6716	75.9198	72.6111
55.8305	75.4646	73.2495
56.0336	75.0796	73.9207
56.3072	74.6773	74.5557
56.6398	74.2912	75.1724
56.9161	73.9699	75.851
57.0422	73.6905	76.5899
57.0432	73.4846	77.363
57.0041	73.3727	78.1541
57.0134	73.2319	78.9416
56.9715	73.0474	79.7189
56.9525	72.8351	80.49
56.984	72.6155	81.2586
57.0331	72.409	82.0299
57.0958	72.2099	82.8022
57.2097	72.0203	83.571
57.3682	71.8311	84.332
57.5569	71.6414	85.0859
57.8038	71.4788	85.8293
58.0961	71.3124	86.5552
58.4154	71.1467	87.2697
58.7389	71.0094	87.9884
59.0462	70.9378	88.7235
59.3366	70.9082	89.4684
59.602	70.902	90.223
59.8321	70.9075	90.9892
60.0239	70.9016	91.7659
60.1823	70.8875	92.5499
60.3191	70.8631	93.3377
60.4445	70.8304	94.1272
60.5563	70.7872	94.9182
60.6538	70.7212	95.7094
60.7187	70.6837	96.5059
60.7392	70.7237	97.3047
60.7276	70.8542	98.0939
60.7065	71.0672	98.8647
60.682	71.3597	99.6089
60.6464	71.678	100.342
60.5703	71.9789	101.079
60.3802	72.2321	101.814
60.0747	72.4054	102.533
59.7038	72.5028	103.235
59.2854	72.5227	103.916
58.8214	72.4356	104.562
58.3009	72.1827	105.115
57.8524	71.7363	105.604
57.4039	71.2899	106.094
57.0034	70.8169	106.599
56.6294	70.3692	107.147
62.9074	85.1605	55.3342
62.3644	85.1992	55.9204
61.8447	85.1673	56.5278
61.3293	84.8827	57.0695
60.8556	84.5416	57.6165
60.4722	84.2077	58.2342
60.1023	83.9281	58.8861
59.7602	83.6426	59.5505
59.427	83.3675	60.2238
59.116	83.1031	60.9118
58.8361	82.8142	61.6033
58.5926	82.502	62.2985
58.409	82.1977	63.0152
58.2281	81.8793	63.7265
58.0592	81.5563	64.4386
57.9289	81.2378	65.1608
57.7942	80.9052	65.8758
57.5866	80.5427	66.5581
57.3323	80.1754	67.2217
57.0365	79.8048	67.866
56.7351	79.4257	68.5028
56.4631	79.021	69.137
56.2202	78.5845	69.7619
56.0259	78.1346	70.3942
55.8901	77.683	71.0404
55.8896	77.1872	71.6682
55.9721	76.6749	72.2771
56.1365	76.1467	72.855
56.3259	75.5919	73.3994
56.515	75.0428	73.9496
56.7573	74.489	74.4736
57.0897	74.0025	75.0148
57.3569	73.626	75.6681
57.4558	73.3145	76.3983
57.4441	73.0617	77.1572
57.438	72.9166	77.9439
57.3918	72.7573	78.7266
57.3104	72.5932	79.5053
57.2261	72.4128	80.2801
57.2099	72.2037	81.0521
57.2434	71.9912	81.8227
57.2894	71.7904	82.5957
57.3718	71.599	83.3681
57.513	71.4036	84.1309
57.6924	71.2154	84.8875
57.9277	71.0668	85.6375
58.2165	70.9244	86.3698
58.5343	70.7739	87.0884
58.856	70.6637	87.8125
59.1682	70.5984	88.5462
59.4665	70.5685	89.2879
59.7445	70.5651	90.038
59.986	70.5661	90.8008
60.1882	70.5586	91.5747
60.3551	70.5424	92.3569
60.4941	70.5149	93.1443
60.6111	70.4753	93.9347
60.7136	70.4136	94.7257
60.8076	70.3306	95.5158
60.8817	70.2693	96.31
60.9008	70.3015	97.1092
60.8695	70.4526	97.8941
60.8324	70.7052	98.6523
60.7953	70.9577	99.4105
60.7645	71.2694	100.147
60.7311	71.6281	100.861
60.6755	71.9629	101.585
60.5396	72.2571	102.317
60.291	72.4868	103.042
59.9417	72.6285	103.747
59.5476	72.676	104.442
59.1271	72.6514	105.122
58.6782	72.557	105.777
58.2235	72.3718	106.409
57.8857	71.9772	107.017
57.6717	71.5458	107.656
57.5078	71.1572	108.336
61.8858	85.147	55.8582
61.4165	84.7505	56.3707
60.9693	84.3402	56.8918
60.6061	83.9266	57.4724
60.2602	83.5833	58.1068
59.9315	83.2842	58.772
59.6346	83.0126	59.4634
59.3199	82.7634	60.1554
59.0293	82.5063	60.8551
58.7789	82.218	61.558
58.5669	81.925	62.2716
58.3576	81.6269	62.9839
58.1225	81.2901	63.6704
57.9052	80.942	64.3571
57.6754	80.5961	65.0409
57.4216	80.2359	65.7086
57.1528	79.8816	66.3736
56.8396	79.5406	67.026
56.5099	79.1877	67.6638
56.1933	78.828	68.3044
55.9076	78.4355	68.9403
55.6697	77.9994	69.5673
55.4817	77.568	70.2143
55.3954	77.1314	70.8791
55.3776	76.7057	71.5562
55.4394	76.2832	72.2326
55.5811	75.871	72.9035
55.78	75.4841	73.5749
56.0274	75.1505	74.2586
56.3474	74.7969	74.9009
56.6723	74.4595	75.5495
56.9138	74.1876	76.262
56.966	73.9639	77.0283
56.8715	73.8277	77.811
56.8267	73.6928	78.5982
56.833	73.5271	79.3809
56.8338	73.3298	80.1562
56.8816	73.1089	80.9236
56.9208	72.9017	81.6953
56.9796	72.7033	82.468
57.0759	72.5144	83.2394
57.2392	72.3412	84.0032
57.4087	72.1529	84.762
57.6307	71.9617	85.5064
57.9053	71.7834	86.2364
58.2139	71.5755	86.9446
58.5325	71.4136	87.6603
58.8444	71.3069	88.3892
59.1471	71.253	89.1278
59.4249	71.2308	89.8777
59.6691	71.2201	90.6394
59.8758	71.2135	91.4122
60.0432	71.2033	92.1945
60.1848	71.1866	92.9816
60.318	71.1652	93.7702
60.4406	71.1468	94.5605
60.5496	71.1171	95.3525
60.6426	71.0681	96.1456
60.6988	71.0651	96.9436
60.7245	71.1436	97.7393
60.7312	71.3112	98.5215
60.7326	71.5621	99.2812
60.7386	71.8717	100.019
60.7007	72.1592	100.764
60.5671	72.4145	101.511
60.3199	72.6181	102.244
59.9696	72.7468	102.951
59.5676	72.814	103.64
59.1197	72.8262	104.303
58.6062	72.7449	104.911
58.0801	72.5018	105.462
57.6052	72.0489	105.92
57.1304	71.5959	106.377
56.6852	71.1702	106.888
56.3044	70.7567	107.457
61.6595	85.0322	56.0709
61.1853	84.6624	56.5985
60.7673	84.2539	57.1448
60.4278	83.8986	57.776
60.0856	83.5896	58.4298
59.7662	83.3056	59.106
59.4627	83.0534	59.802
59.1579	82.8003	60.497
58.8811	82.5348	61.199
58.6423	82.2377	61.9023
58.4523	81.949	62.6239
58.2478	81.6378	63.3319
58.0218	81.2896	64.0158
57.8384	80.9561	64.7194
57.6267	80.61	65.4089
57.3907	80.2478	66.0821
57.136	79.9003	66.7561
56.8256	79.5502	67.405
56.5137	79.1924	68.049
56.2196	78.8134	68.6892
55.9599	78.3983	69.3219
55.7532	77.9415	69.9452
55.5996	77.5019	70.5957
55.5581	77.0384	71.2465
55.5843	76.5779	71.9001
55.6891	76.1216	72.5488
55.8606	75.6618	73.1806
56.0709	75.2455	73.8306
56.3311	74.8252	74.4596
56.6679	74.4158	75.0587
56.96	74.0646	75.7155
57.1164	73.7802	76.4467
57.1278	73.5549	77.2142
57.0585	73.4456	78.0037
57.0435	73.3096	78.7919
57.0134	73.1366	79.5724
56.9743	72.9265	80.3433
57.0055	72.7012	81.1103
57.0459	72.4922	81.8815
57.105	72.291	82.6535
57.2046	72.0997	83.4239
57.3591	71.9125	84.1862
57.5374	71.7231	84.9427
57.7732	71.5525	85.6879
58.0584	71.3921	86.4179
58.3721	71.2169	87.1327
58.6946	71.0749	87.8509
59.0005	70.9905	88.5852
59.2931	70.9521	89.3288
59.5648	70.943	90.0812
59.8	70.9447	90.8459
59.9985	70.9409	91.6208
60.1613	70.9291	92.404
60.2998	70.9082	93.1917
60.4282	70.8794	93.9808
60.5432	70.8426	94.7716
60.6438	70.7848	95.5631
60.7191	70.7381	96.3582
60.7511	70.7611	97.1572
60.7488	70.8748	97.9491
60.7358	71.0754	98.7234
60.7189	71.3569	99.4721
60.6977	71.6786	100.204
60.6456	71.9841	100.942
60.4828	72.2456	101.68
60.2013	72.4369	102.404
59.8387	72.5506	103.108
59.476	72.6642	103.812
59.0651	72.7063	104.497
58.6133	72.6812	105.157
58.1083	72.5763	105.768
57.6071	72.3159	106.335
57.1594	71.927	106.872
56.7627	71.5337	107.445
62.5516	84.9963	55.5005
62.034	85.1299	56.0957
61.518	84.9671	56.685
61.0245	84.6346	57.2197
60.6161	84.2969	57.819
60.2606	83.9878	58.4656
59.9093	83.7165	59.1312
59.5776	83.4408	59.8049
59.2591	83.1746	60.4888
58.9653	82.9132	61.1855
58.7035	82.611	61.8784
58.4872	82.3061	62.5857
58.3243	82.0043	63.3085
58.1249	81.6712	64.0079
57.9704	81.3501	64.7242
57.8395	81.0274	65.4444
57.6608	80.6742	66.1397
57.4288	80.3097	66.8129
57.1565	79.9462	67.4715
56.8504	79.576	68.1112
56.5586	79.1886	68.7475
56.2961	78.7732	69.3787
56.0767	78.3169	69.9981
55.8991	77.8716	70.6386
55.828	77.3994	71.2804
55.8629	76.8948	71.9002
55.9751	76.3883	72.5093
56.1571	75.8547	73.0769
56.3448	75.3176	73.6392
56.5565	74.7801	74.1926
56.8402	74.2572	74.7275
57.1495	73.8298	75.3289
57.361	73.4933	76.0232
57.3945	73.2063	76.7692
57.3907	73.0087	77.5444
57.375	72.8634	78.3309
57.3229	72.7001	79.1123
57.2218	72.5318	79.8879
57.1802	72.3333	80.6617
57.189	72.1238	81.4338
57.237	71.9148	82.2045
57.2883	71.7227	82.9794
57.4059	71.531	83.7471
57.5646	71.3371	84.5069
57.7702	71.1599	85.2594
58.0359	71.0403	86.0045
58.3401	70.8858	86.7281
58.665	70.7516	87.4467
58.9794	70.6638	88.1771
59.2882	70.617	88.9136
59.5761	70.6016	89.6599
59.8346	70.5992	90.4169
60.0574	70.5995	91.1853
60.2409	70.5879	91.9639
60.3926	70.5675	92.7491
60.5219	70.5342	93.5378
60.6329	70.4861	94.3287
60.7308	70.4148	95.1194
60.8247	70.325	95.9088
60.8712	70.3057	96.7072
60.8636	70.3968	97.502
60.8561	70.4878	98.2967
60.8101	70.7073	99.0647
60.7592	71.0178	99.8002
60.7205	71.3673	100.519
60.6668	71.7165	101.237
60.5569	72.0285	101.965
60.3647	72.3036	102.691
60.0509	72.4849	103.404
59.6752	72.5663	104.106
59.2637	72.5667	104.792
58.83	72.4798	105.459
58.373	72.3269	106.097
57.965	71.9509	106.674
57.7051	71.4784	107.264
57.497	71.0658	107.917
62.004	84.9969	56.3147
61.5264	84.545	56.7704
61.106	84.061	57.2491
60.7179	83.6313	57.8011
60.3609	83.2565	58.4111
60.0435	82.9374	59.0724
59.7168	82.6668	59.7507
59.3997	82.3926	60.4321
59.1324	82.1034	61.1285
58.8939	81.7917	61.8256
58.6497	81.4893	62.5248
58.3877	81.1628	63.2065
58.1234	80.7912	63.8638
57.8456	80.4207	64.5162
57.5306	80.048	65.1501
57.2021	79.6632	65.7698
56.8239	79.282	66.3628
56.4366	78.9226	66.9634
56.0434	78.577	67.5684
55.6438	78.2393	68.1736
55.3006	77.8657	68.7922
55.0128	77.4845	69.434
54.8404	77.1233	70.1267
54.7574	76.7817	70.8453
54.7237	76.4746	71.5832
54.7748	76.1921	72.3299
54.9084	75.956	73.0825
55.1312	75.7561	73.8244
55.4102	75.549	74.545
55.7306	75.3452	75.2492
56.062	75.1332	75.9457
56.3907	74.9638	76.6552
56.5346	74.8197	77.4288
56.5031	74.6959	78.2185
56.516	74.5643	79.0075
56.5879	74.4325	79.7933
56.6634	74.2749	80.574
56.7351	74.1072	81.3529
56.8222	73.9463	82.1317
56.9384	73.8069	82.9109
57.0911	73.6726	83.6846
57.2646	73.5358	84.4535
57.4522	73.3578	85.2105
57.6918	73.1177	85.935
57.9683	72.8878	86.6497
58.271	72.6646	87.3558
58.5816	72.5044	88.0754
58.8984	72.422	88.8054
59.1828	72.3649	89.5509
59.4365	72.3227	90.3085
59.6629	72.287	91.0749
59.8353	72.2826	91.8561
59.9828	72.2766	92.6424
60.122	72.282	93.4302
60.2557	72.311	94.2184
60.3797	72.3611	95.0071
60.494	72.3897	95.7984
60.5967	72.4008	96.5917
60.6799	72.4325	97.3867
60.74	72.5253	98.179
60.8077	72.6711	98.9627
60.8442	72.8373	99.7444
60.8179	73.0159	100.524
60.7206	73.1937	101.298
60.5303	73.3615	102.056
60.2411	73.4729	102.794
59.8696	73.5459	103.499
59.4424	73.6064	104.172
58.9668	73.6472	104.814
58.4764	73.6604	105.446
57.9446	73.6414	106.044
57.4991	73.6669	106.708
57.1393	73.6945	107.422
56.8555	73.7309	108.169
56.5717	73.7674	108.916
61.6648	84.7551	56.4686
61.2106	84.312	56.9557
60.8199	83.8649	57.4919
60.4554	83.4764	58.0887
60.1224	83.1472	58.7374
59.8107	82.8593	59.4156
59.4849	82.6033	60.0999
59.1921	82.3287	60.7919
58.9528	82.0287	61.4939
58.721	81.7254	62.1969
58.4811	81.4198	62.8963
58.2236	81.073	63.5696
57.9678	80.7036	64.2315
57.6877	80.3395	64.8865
57.3891	79.9688	65.5294
57.0579	79.5929	66.1532
56.6889	79.232	66.7644
56.3248	78.8767	67.3818
55.9414	78.5407	67.9983
55.5971	78.1702	68.6182
55.3048	77.7728	69.2479
55.0914	77.3761	69.9091
54.9941	76.9943	70.6053
54.9434	76.6408	71.3212
54.9829	76.305	72.0462
55.0909	76.0008	72.7782
55.2812	75.7299	73.5065
55.537	75.4818	74.2227
55.8515	75.2557	74.9227
56.1833	75.0075	75.607
56.5023	74.7869	76.3067
56.7165	74.6104	77.057
56.6525	74.4785	77.8435
56.6121	74.346	78.6314
56.6399	74.1978	79.4171
56.7273	74.027	80.1937
56.7909	73.8413	80.9693
56.8568	73.6602	81.7457
56.9391	73.4887	82.5227
57.0576	73.3253	83.2969
57.2308	73.1758	84.0634
57.395	73.0018	84.8268
57.608	72.7753	85.564
57.8764	72.562	86.2868
58.1773	72.3188	86.987
58.4811	72.1362	87.7042
58.7863	72.0203	88.4345
59.0953	71.9555	89.1696
59.3671	71.9114	89.9207
59.6095	71.8758	90.6823
59.8089	71.8529	91.4567
59.9631	71.839	92.2416
60.0971	71.8227	93.0301
60.2255	71.8215	93.8197
60.3457	71.8498	94.6101
60.4594	71.8805	95.4014
60.5698	71.8854	96.1937
60.6648	71.8778	96.988
60.7302	71.9465	97.7824
60.7789	72.0979	98.5664
60.8199	72.3062	99.3378
60.8346	72.5347	100.104
60.7806	72.7607	100.87
60.6473	72.9747	101.629
60.4092	73.1449	102.374
60.068	73.2507	103.089
59.6651	73.3197	103.777
59.2622	73.3888	104.465
58.8121	73.4317	105.125
58.3244	73.4393	105.759
57.8261	73.4058	106.384
57.3256	73.3729	107.007
56.918	73.3108	107.693
56.5416	73.2521	108.396
61.8728	84.9941	56.1691
61.3995	84.5632	56.6491
60.9826	84.0996	57.1504
60.6085	83.6952	57.7304
60.2571	83.3417	58.3562
59.9462	83.0328	59.0254
59.6294	82.7664	59.7101
59.315	82.5014	60.3963
59.0441	82.2262	61.0969
58.8132	81.9204	61.7992
58.5824	81.6232	62.5052
58.3367	81.3044	63.1965
58.081	80.9407	63.8616
57.8266	80.5818	64.5298
57.54	80.2187	65.1825
57.2437	79.8482	65.8267
56.9033	79.4836	66.4521
56.5367	79.1318	67.07
56.1793	78.7831	67.6951
55.8203	78.4315	68.3175
55.5151	78.035	68.9418
55.258	77.6303	69.5822
55.0956	77.2369	70.2596
55.03	76.8524	70.9581
55.0196	76.4997	71.676
55.0912	76.1639	72.3986
55.2424	75.8597	73.1229
55.4692	75.5865	73.8398
55.75	75.3333	74.5448
56.0757	75.0865	75.2325
56.4092	74.8354	75.915
56.6814	74.626	76.6375
56.7358	74.462	77.4186
56.6483	74.3381	78.2041
56.6292	74.1937	78.9908
56.6964	74.0287	79.7707
56.7631	73.8471	80.5469
56.8273	73.659	81.3219
56.8897	73.4785	82.0987
56.98	73.3044	82.8743
57.1241	73.1419	83.6443
57.2918	72.9755	84.4086
57.472	72.7763	85.1621
57.7165	72.5601	85.8925
58.0059	72.3482	86.6076
58.3137	72.1317	87.3136
58.6124	71.9805	88.0402
58.9264	71.8968	88.7712
59.2166	71.8418	89.5146
59.4756	71.8072	90.2708
59.7041	71.7772	91.0369
59.88	71.7641	91.8172
60.0254	71.7474	92.6037
60.1708	71.7306	93.3902
60.3036	71.7192	94.179
60.4294	71.7253	94.969
60.5439	71.7579	95.7601
60.6558	71.7668	96.5522
60.7548	71.765	97.346
60.8313	71.798	98.1417
60.8796	71.9164	98.9314
60.9157	72.127	99.7023
60.9494	72.3935	100.456
60.951	72.6578	101.211
60.8898	72.9097	101.968
60.7678	73.1488	102.721
60.5497	73.3278	103.47
60.2324	73.4471	104.195
59.8472	73.5259	104.891
59.4217	73.5805	105.567
59.0441	73.6146	106.271
58.7606	73.6236	107.019
58.7329	73.6629	107.818
58.7136	73.6463	108.617
58.6758	73.7229	109.413
61.6681	85.0819	56.0134
61.1928	84.7257	56.5494
60.7648	84.3321	57.0988
60.4307	83.9776	57.7334
60.0888	83.6715	58.3887
59.7642	83.3908	59.0639
59.4553	83.1338	59.7556
59.1501	82.8843	60.4518
58.8694	82.6245	61.1544
58.6229	82.331	61.8566
58.4311	82.0431	62.578
58.238	81.7383	63.292
58.0171	81.3982	63.9816
57.8415	81.0711	64.6902
57.6515	80.7345	65.3906
57.4318	80.3769	66.0717
57.1945	80.0295	66.7521
56.9015	79.6809	67.4099
56.5902	79.3228	68.054
56.305	78.944	68.6983
56.0465	78.5328	69.334
55.841	78.0753	69.9573
55.682	77.635	70.606
55.632	77.1719	71.2564
55.6647	76.6999	71.9016
55.7745	76.2294	72.5392
55.9556	75.7509	73.1542
56.1631	75.2939	73.7772
56.4114	74.8363	74.3845
56.7427	74.3916	74.9612
57.0386	74.0123	75.6003
57.2113	73.7143	76.3224
57.2332	73.4659	77.0825
57.1992	73.3305	77.8703
57.1731	73.1931	78.658
57.1284	73.0272	79.4393
57.0596	72.8294	80.2114
57.0735	72.6061	80.9794
57.1059	72.395	81.7504
57.1591	72.1905	82.522
57.2401	71.995	83.2935
57.388	71.8072	84.057
57.5611	71.6174	84.8146
57.7875	71.447	85.5627
58.0665	71.2993	86.2978
58.3757	71.1274	87.0154
58.6985	70.9869	87.7337
59.0059	70.9003	88.4672
59.3026	70.8592	89.209
59.5799	70.8498	89.9593
59.8211	70.8494	90.7221
60.0264	70.8462	91.4953
60.1941	70.835	92.2775
60.3338	70.8154	93.0649
60.4734	70.7958	93.8524
60.6005	70.7677	94.6418
60.7141	70.7313	95.4328
60.815	70.6771	96.2246
60.9	70.6219	97.0181
60.9414	70.6421	97.8168
60.9367	70.7837	98.6042
60.92	71.0399	99.3618
60.9142	71.3602	100.095
60.9126	71.7308	100.804
60.8911	72.0721	101.527
60.7916	72.3743	102.261
60.5808	72.6206	102.992
60.2592	72.787	103.706
59.8689	72.8624	104.4
59.4548	72.8762	105.084
59.0145	72.8336	105.751
58.6013	72.7349	106.429
58.3072	72.5091	107.138
58.2213	72.1441	107.844
58.1718	71.7926	108.561
62.8909	85.1966	55.1858
62.3308	85.1715	55.7566
61.8104	85.1621	56.364
61.2995	84.8792	56.9109
60.8328	84.5344	57.4615
60.4562	84.2166	58.0918
60.0936	83.9355	58.7472
59.7514	83.6548	59.4135
59.4156	83.3854	60.0879
59.0997	83.1259	60.7755
58.8171	82.8486	61.4707
58.5665	82.5423	62.1659
58.371	82.2416	62.881
58.1962	81.9342	63.5986
58.0185	81.6156	64.3106
57.8844	81.3039	65.0351
57.759	80.9833	65.7572
57.5665	80.6314	66.4494
57.327	80.2725	67.1231
57.0426	79.9088	67.7764
56.7414	79.5381	68.4181
56.465	79.1449	69.0577
56.2213	78.7207	69.6907
56.0283	78.2775	70.3281
55.8778	77.8469	70.9853
55.8712	77.3719	71.6291
55.9559	76.8683	72.2448
56.1205	76.3518	72.8331
56.3317	75.8044	73.377
56.5394	75.2485	73.9135
56.7785	74.6849	74.4284
57.1018	74.1767	74.9549
57.386	73.793	75.5968
57.5126	73.4843	76.3239
57.4989	73.2261	77.081
57.4741	73.0731	77.8659
57.4175	72.9195	78.6489
57.3316	72.7564	79.4274
57.2363	72.5771	80.2012
57.2198	72.3645	80.9723
57.2438	72.1523	81.7432
57.2882	71.945	82.5146
57.3612	71.751	83.2873
57.5001	71.5576	84.051
57.6733	71.3684	84.8088
57.9013	71.2116	85.5594
58.1831	71.0712	86.2949
58.4947	70.9147	87.0149
58.8147	70.7915	87.7377
59.1236	70.7146	88.4716
59.421	70.6778	89.2134
59.6993	70.6701	89.9633
59.942	70.6694	90.7256
60.1466	70.664	91.499
60.3147	70.6506	92.281
60.4541	70.6279	93.0685
60.5757	70.5947	93.8585
60.6826	70.5448	94.6497
60.779	70.4733	95.4407
60.86	70.4094	96.234
60.8905	70.4289	97.0332
60.8745	70.564	97.8215
60.851	70.7977	98.5863
60.8275	71.0315	99.351
60.8083	71.3337	100.091
60.7884	71.6929	100.806
60.7475	72.0274	101.532
60.6317	72.325	102.265
60.4028	72.5625	102.994
60.0667	72.7172	103.703
59.6757	72.7791	104.398
59.2562	72.7772	105.08
58.8063	72.7103	105.738
58.3633	72.58	106.391
58.0149	72.2786	107.045
57.8353	71.8484	107.695
57.7156	71.4748	108.392
61.8682	85.0113	56.0344
61.3997	84.5714	56.5109
60.9832	84.1073	57.0119
60.605	83.6982	57.5861
60.2522	83.3403	58.2085
59.9374	83.0282	58.8745
59.6207	82.7539	59.556
59.2985	82.4975	60.2419
59.0196	82.2337	60.9437
58.7802	81.9388	61.6478
58.5451	81.6485	62.3553
58.3	81.3427	63.0527
58.0408	80.9936	63.7242
57.7889	80.6438	64.3981
57.5096	80.2925	65.0604
57.2261	79.9366	65.7184
56.9025	79.5786	66.3565
56.5452	79.2327	66.9831
56.1996	78.8853	67.6155
55.8481	78.5405	68.2459
55.5428	78.1542	68.8765
55.288	77.7487	69.5173
55.1189	77.3526	70.1915
55.0634	76.9621	70.8875
55.0538	76.6024	71.602
55.1241	76.2563	72.3198
55.2726	75.9358	73.0376
55.4955	75.6447	73.7487
55.7717	75.3794	74.451
56.0982	75.1237	75.1351
56.4338	74.8579	75.811
56.7149	74.6358	76.5263
56.7959	74.4612	77.3028
56.6816	74.3403	78.0853
56.6491	74.1995	78.8721
56.7001	74.0377	79.6539
56.768	73.8572	80.4303
56.8316	73.6666	81.2047
56.8894	73.483	81.9812
56.9738	73.3063	82.7568
57.1072	73.1395	83.5278
57.2764	72.9757	84.2924
57.4476	72.7894	85.0513
57.6829	72.5709	85.784
57.9666	72.3613	86.5021
58.2742	72.1355	87.2052
58.5737	71.9751	87.9295
58.8849	71.8818	88.6605
59.1806	71.8244	89.4016
59.4444	71.7896	90.1561
59.6781	71.7593	90.9206
59.8622	71.744	91.699
60.0114	71.7278	92.4848
60.1605	71.7115	93.2706
60.2944	71.6985	94.0592
60.4215	71.7004	94.849
60.5379	71.7278	95.6401
60.6493	71.7395	96.4322
60.7501	71.7375	97.2258
60.8304	71.7591	98.0215
60.8797	71.8642	98.813
60.9163	72.0639	99.5868
60.9509	72.3285	100.341
60.9609	72.5991	101.094
60.9124	72.8562	101.85
60.7996	73.0983	102.604
60.5965	73.2893	103.354
60.2934	73.4177	104.083
59.913	73.5016	104.782
59.4941	73.5575	105.461
59.1102	73.5935	106.162
58.7956	73.6004	106.897
58.7291	73.6265	107.694
58.7087	73.6104	108.494
58.6768	73.6517	109.292
61.882	85.1666	55.791
61.4161	84.7737	56.3091
60.9668	84.3677	56.8319
60.6038	83.9485	57.4086
60.2602	83.6059	58.0446
59.9301	83.3065	58.709
59.6323	83.032	59.3989
59.3167	82.7867	60.0919
59.0227	82.5324	60.7911
58.7678	82.2492	61.4945
58.5548	81.9577	62.2084
58.3472	81.6632	62.9227
58.1144	81.3326	63.613
57.8973	80.9869	64.301
57.6745	80.646	64.9896
57.4263	80.2902	65.6618
57.168	79.9393	66.3327
56.8663	79.6013	66.992
56.5379	79.25	67.6314
56.2276	78.8917	68.2758
55.9423	78.5036	68.9146
55.7024	78.0719	69.5439
55.5133	77.6382	70.189
55.4192	77.2038	70.8542
55.4043	76.7736	71.5285
55.4661	76.3457	72.2016
55.6083	75.927	72.8682
55.8076	75.5281	73.5324
56.0526	75.18	74.2098
56.3659	74.8123	74.8475
56.6926	74.4619	75.4882
56.9433	74.1825	76.1947
57.0049	73.9499	76.9576
56.9148	73.8048	77.7392
56.8601	73.6738	78.5265
56.8609	73.5119	79.3099
56.8519	73.3156	80.0854
56.8911	73.095	80.8534
56.9305	72.8849	81.6243
56.9865	72.6849	82.3969
57.0751	72.4938	83.1686
57.2314	72.3183	83.9333
57.3993	72.13	84.6925
57.6155	71.9384	85.4386
57.8861	71.7649	86.1711
58.1923	71.5618	86.8817
58.5112	71.3974	87.5968
58.8239	71.2855	88.3246
59.1287	71.229	89.0621
59.4082	71.2047	89.8113
59.6553	71.194	90.5721
59.8658	71.1885	91.3439
60.036	71.1791	92.1255
60.1799	71.163	92.9123
60.3137	71.1412	93.7007
60.4374	71.1211	94.4909
60.5474	71.0917	95.2827
60.6432	71.0366	96.075
60.7012	71.0298	96.8729
60.7281	71.1022	97.6692
60.7345	71.2631	98.4528
60.7341	71.5087	99.2141
60.7387	71.8174	99.9522
60.7071	72.1098	100.696
60.5833	72.3704	101.442
60.347	72.5825	102.177
60.0034	72.7169	102.886
59.6065	72.7878	103.577
59.1637	72.8028	104.244
58.6581	72.7247	104.859
58.1318	72.491	105.414
57.6055	72.2572	105.969
57.1083	71.859	106.453
56.6439	71.4535	106.963
56.2409	71.0693	107.537
62.7616	85.1153	55.137
62.2028	85.1005	55.7093
61.689	85.0757	56.322
61.1932	84.7515	56.8596
60.7557	84.3832	57.419
60.4125	84.0742	58.0723
60.0581	83.7909	58.7312
59.7259	83.5114	59.4031
59.4012	83.2509	60.0863
59.1011	82.997	60.7831
58.8245	82.7169	61.4795
58.5839	82.4119	62.1789
58.4047	82.1155	62.9
58.2171	81.7993	63.6105
58.0312	81.4698	64.3154
57.8915	81.149	65.0348
57.7314	80.8099	65.7414
57.5148	80.4472	66.4208
57.2705	80.0879	67.0926
56.9759	79.7244	67.7415
56.6718	79.3501	68.3798
56.3964	78.9509	69.016
56.1496	78.5188	69.6424
55.9531	78.0636	70.2702
55.8127	77.6122	70.9156
55.7982	77.1236	71.5489
55.8643	76.6226	72.1691
56.0154	76.1186	72.7717
56.2007	75.5898	73.3427
56.3954	75.0773	73.9253
56.646	74.5565	74.4784
56.9789	74.0751	75.0239
57.2497	73.7022	75.6777
57.3656	73.3928	76.4063
57.3652	73.1432	77.1664
57.3666	73.0092	77.9551
57.3324	72.8551	78.7394
57.2589	72.6897	79.5186
57.1822	72.5042	80.293
57.1742	72.2915	81.0642
57.2094	72.0795	81.8348
57.2577	71.8771	82.6073
57.3429	71.6857	83.3793
57.4866	71.492	84.1421
57.666	71.3039	84.8987
57.9012	71.1518	85.6481
58.1875	71.0098	86.3815
58.504	70.8566	87.1001
58.8259	70.7398	87.8231
59.1368	70.6715	88.557
59.4338	70.6407	89.2992
59.7103	70.6366	90.0499
59.9502	70.6381	90.8131
60.1516	70.6313	91.5873
60.3173	70.6161	92.3698
60.4557	70.5905	93.1573
60.5747	70.5537	93.9476
60.6797	70.4973	94.7386
60.7748	70.4197	95.5292
60.8483	70.3622	96.3237
60.8691	70.3935	97.1228
60.8427	70.5371	97.9094
60.8103	70.7781	98.6715
60.7868	71.0782	99.4128
60.7627	71.4249	100.133
60.7104	71.7494	100.863
60.5668	72.0342	101.596
60.3005	72.2477	102.32
60.0342	72.4613	103.043
59.6775	72.587	103.748
59.2769	72.6304	104.439
58.8433	72.5993	105.111
58.366	72.4885	105.743
57.8842	72.2328	106.329
57.4976	71.792	106.873
57.1833	71.37	107.476
56.871	70.9605	108.088
61.627	84.8342	56.3704
61.1636	84.4198	56.874
60.7845	83.9719	57.4177
60.4292	83.6016	58.0314
60.0919	83.2825	58.6829
59.7926	82.9983	59.3682
59.4745	82.7479	60.0582
59.1788	82.4783	60.7509
58.9276	82.1857	61.4519
58.709	81.8807	62.1584
58.488	81.5787	62.8654
58.2458	81.2388	63.5479
58.0076	80.872	64.2178
57.7565	80.513	64.8872
57.4775	80.1429	65.5393
57.1786	79.7717	66.1818
56.8371	79.4178	66.8128
56.4876	79.0612	67.4378
56.1367	78.7121	68.0664
55.8131	78.3326	68.6919
55.5408	77.9157	69.318
55.3268	77.4948	69.9638
55.2151	77.0831	70.6405
55.1659	76.6893	71.3352
55.2028	76.3041	72.0353
55.3127	75.9426	72.7405
55.4956	75.6088	73.4442
55.7389	75.3183	74.1487
56.0427	75.0483	74.8378
56.3743	74.757	75.505
56.6698	74.507	76.2051
56.8298	74.3006	76.9613
56.7571	74.1587	77.7453
56.6926	74.0241	78.5312
56.7054	73.8635	79.3148
56.7561	73.6786	80.0915
56.8113	73.4779	80.864
56.8641	73.2824	81.6379
56.9227	73.0927	82.4129
57.0221	72.906	83.1844
57.1899	72.7424	83.9493
57.3569	72.5617	84.7105
57.5686	72.3537	85.4535
57.8384	72.1577	86.1806
58.1467	71.9282	86.8823
58.4584	71.749	87.5969
58.7679	71.6302	88.325
59.0787	71.5696	89.0597
59.3574	71.5348	89.8088
59.6047	71.5127	90.5693
59.814	71.4978	91.3412
59.979	71.4862	92.124
60.1202	71.4698	92.9112
60.2527	71.4557	93.7
60.3759	71.4549	94.4905
60.4877	71.4549	95.2826
60.591	71.4286	96.0755
60.6663	71.4209	96.8719
60.7124	71.4849	97.668
60.7398	71.6363	98.4531
60.7628	71.8694	99.218
60.7822	72.1477	99.9678
60.7456	72.4079	100.723
60.6215	72.6466	101.477
60.3915	72.8454	102.217
60.0508	72.9771	102.929
59.6509	73.0559	103.617
59.2015	73.0967	104.278
58.6887	73.0803	104.891
58.1539	72.9988	105.481
57.6036	72.7711	106.015
57.0533	72.5433	106.549
56.554	72.2505	107.101
56.097	71.933	107.676
61.9082	85.2186	55.8067
61.4385	84.8619	56.3472
60.9735	84.4877	56.8799
60.6009	84.088	57.4642
60.2621	83.761	58.1109
59.9256	83.473	58.7771
59.616	83.2	59.4624
59.31	82.9541	60.1595
59.015	82.7024	60.8592
58.755	82.4176	61.5601
58.5398	82.1224	62.2718
58.3582	81.8289	62.9935
58.1425	81.4999	63.6901
57.9444	81.1608	64.3871
57.7614	80.8261	65.0903
57.5425	80.469	65.7719
57.2984	80.1102	66.4439
57.0275	79.7674	67.1141
56.7097	79.41	67.7554
56.4123	79.0392	68.3989
56.1356	78.6407	69.035
55.8996	78.2005	69.6599
55.7105	77.7542	70.2963
55.6082	77.2996	70.9466
55.6007	76.8345	71.5975
55.6691	76.3678	72.2436
55.8201	75.8999	72.8747
56.0134	75.4433	73.5025
56.2346	75.0201	74.1444
56.5334	74.5837	74.7446
56.8544	74.1835	75.3585
57.0959	73.8789	76.0576
57.1708	73.6124	76.8083
57.1456	73.437	77.5884
57.1122	73.3127	78.378
57.0945	73.1595	79.1629
57.0128	72.966	79.9349
57.0102	72.748	80.7046
57.0394	72.5326	81.4745
57.0912	72.327	82.2459
57.1523	72.1291	83.0186
57.2834	71.9417	83.7852
57.4466	71.7509	84.5448
57.652	71.5653	85.2954
57.9148	71.4222	86.0373
58.2154	71.2484	86.758
58.538	71.094	87.4736
58.8537	70.9787	88.1996
59.1579	70.9213	88.9373
59.4417	70.9004	89.685
59.6955	70.8958	90.4436
59.9146	70.8978	91.213
60.0937	70.8899	91.9927
60.243	70.8738	92.7785
60.3761	70.8471	93.5668
60.497	70.8127	94.3569
60.6036	70.7645	95.1483
60.6988	70.691	95.9392
60.7509	70.6733	96.7373
60.7607	70.7445	97.5341
60.748	70.9063	98.3175
60.7277	71.1482	99.0798
60.709	71.463	99.815
60.6711	71.7792	100.549
60.5676	72.0681	101.288
60.35	72.3087	102.019
60.0212	72.4606	102.732
59.6377	72.5357	103.43
59.2106	72.5339	104.107
58.7327	72.4134	104.737
58.2222	72.1009	105.268
57.8058	71.6282	105.761
57.4566	71.1605	106.308
57.1073	70.6928	106.855
56.7878	70.252	107.441
61.7923	85.026	56.075
61.3195	84.6218	56.578
60.8981	84.1856	57.0998
60.5381	83.7984	57.7002
60.1913	83.4631	58.3384
59.8752	83.1655	59.0103
59.5703	82.9049	59.7025
59.2599	82.646	60.3929
58.9839	82.3796	61.095
58.7529	82.0783	61.7991
58.5394	81.7843	62.5118
58.314	81.4705	63.2124
58.0714	81.1143	63.8863
57.8459	80.7646	64.5696
57.5919	80.4085	65.2394
57.327	80.0438	65.9004
57.0307	79.6909	66.5543
56.6908	79.3423	67.1891
56.3667	78.9881	67.8291
56.0401	78.6239	68.4621
55.7603	78.217	69.0915
55.5253	77.7861	69.7232
55.362	77.3656	70.3838
55.3055	76.9351	71.0558
55.3037	76.5258	71.7431
55.3829	76.1255	72.4313
55.5392	75.7416	73.1155
55.7556	75.3985	73.805
56.0239	75.0936	74.4942
56.3567	74.7688	75.1452
56.6741	74.4728	75.8172
56.8771	74.2266	76.5509
56.8748	74.0397	77.3287
56.7685	73.9203	78.1126
56.7474	73.7717	78.8984
56.7724	73.5951	79.6783
56.8028	73.3962	80.4525
56.8579	73.1854	81.2223
56.8929	72.9905	81.9974
56.9641	72.7976	82.7705
57.0926	72.6189	83.5396
57.2588	72.4424	84.302
57.4383	72.2505	85.0576
57.6838	72.0596	85.7947
57.9764	71.8626	86.5128
58.2912	71.66	87.2198
58.6066	71.5093	87.9394
58.9186	71.4246	88.6712
59.2125	71.3799	89.4138
59.4789	71.3604	90.1679
59.7116	71.3488	90.9333
59.9005	71.3395	91.7106
60.0566	71.3254	92.4951
60.1943	71.3065	93.2829
60.3243	71.2893	94.0721
60.4424	71.281	94.8633
60.5486	71.251	95.6556
60.6315	71.2238	96.4509
60.6827	71.2459	97.2489
60.7051	71.3493	98.0419
60.7152	71.5443	98.8177
60.7259	71.8132	99.5711
60.7196	72.1018	100.317
60.6454	72.3686	101.068
60.4678	72.6014	101.812
60.1741	72.769	102.537
59.8009	72.8714	103.237
59.3756	72.9275	103.913
58.8959	72.9247	104.553
58.3622	72.8337	105.142
57.826	72.5736	105.676
57.3228	72.1814	106.158
56.8196	71.7891	106.641
56.3517	71.4077	107.166
55.9289	71.0469	107.741
61.7418	84.9794	56.3923
61.2567	84.6054	56.907
60.8367	84.1954	57.4505
60.4926	83.8529	58.0863
60.1434	83.5406	58.7348
59.8266	83.2571	59.4125
59.5271	83.0048	60.1101
59.2328	82.7314	60.802
58.97	82.4368	61.4977
58.7567	82.1222	62.2017
58.569	81.819	62.9178
58.3526	81.4775	63.6082
58.1438	81.1139	64.2895
57.9455	80.7555	64.9767
57.7	80.3754	65.6364
57.428	79.9898	66.2824
57.1201	79.6284	66.9263
56.7828	79.2634	67.5532
56.4599	78.8905	68.1831
56.1496	78.4914	68.803
55.8872	78.0501	69.4166
55.6627	77.5983	70.0374
55.5248	77.1443	70.6815
55.4603	76.6941	71.3396
55.4839	76.2418	71.9991
55.585	75.7995	72.658
55.7401	75.3742	73.3176
55.9468	75.0318	74.0105
56.2353	74.6692	74.6626
56.5637	74.3167	75.3013
56.8359	74.0323	75.9977
56.9456	73.7751	76.7472
56.9289	73.5986	77.5273
56.8978	73.4769	78.3174
56.9089	73.3233	79.1025
56.8745	73.1288	79.8777
56.8839	72.9113	80.6475
56.9221	72.6986	81.4177
56.9761	72.4972	82.1901
57.0464	72.3016	82.9626
57.1811	72.1175	83.7294
57.3454	71.9278	84.489
57.5459	71.7352	85.2392
57.8046	71.5743	85.9789
58.1041	71.3934	86.6983
58.4268	71.2275	87.4113
58.7482	71.1009	88.1329
59.0547	71.0355	88.8689
59.3406	71.0094	89.6156
59.5978	71.003	90.3731
59.8196	71.0063	91.1418
60.0027	70.9999	91.9205
60.1557	70.9846	92.7056
60.2921	70.9587	93.4935
60.4181	70.9268	94.2828
60.53	70.8862	95.0739
60.627	70.8199	95.8652
60.6853	70.7941	96.6627
60.7036	70.8461	97.4608
60.6979	70.9829	98.249
60.6775	71.2055	99.0171
60.6562	71.5046	99.7588
60.6171	71.8136	100.496
60.5135	72.098	101.236
60.2962	72.3354	101.969
59.9707	72.4881	102.683
59.5884	72.5691	103.381
59.159	72.5788	104.056
58.6719	72.4727	104.682
58.1432	72.1885	105.211
57.6144	71.9043	105.74
57.1298	71.4649	106.2
56.6748	71.026	106.69
56.2724	70.5968	107.232
61.5852	84.8938	56.3811
61.112	84.5128	56.9016
60.7238	84.0985	57.4652
60.3789	83.7563	58.1008
60.0379	83.4581	58.7602
59.7281	83.1798	59.4432
59.4228	82.9293	60.139
59.129	82.665	60.8345
58.8707	82.3734	61.5333
58.6614	82.0688	62.2428
58.4695	81.769	62.9593
58.2482	81.4307	63.6496
58.0409	81.0747	64.3354
57.8366	80.724	65.0248
57.5931	80.3527	65.6903
57.3293	79.9814	66.348
57.0329	79.6339	67.0048
56.7022	79.2729	67.6375
56.3876	78.9023	68.2728
56.0923	78.5039	68.9005
55.8425	78.0623	69.5191
55.6351	77.6153	70.1493
55.5193	77.1622	70.7984
55.4789	76.7127	71.459
55.522	76.2625	72.1188
55.6435	75.8189	72.7734
55.8169	75.3939	73.4286
56.0373	75.0389	74.1108
56.3377	74.6602	74.7483
56.6624	74.2999	75.3844
56.9141	74.0141	76.088
56.9968	73.7601	76.8421
56.9569	73.5966	77.6242
56.9234	73.4722	78.4138
56.9282	73.3157	79.1983
56.8819	73.1168	79.9718
56.8998	72.8969	80.7408
56.9379	72.6853	81.5113
56.9945	72.4832	82.2833
57.0692	72.2886	83.0557
57.2113	72.1057	83.8214
57.3773	71.9153	84.5805
57.5851	71.7242	85.329
57.8492	71.5646	86.0671
58.1519	71.3795	86.7841
58.4755	71.218	87.4977
58.7938	71.1001	88.2221
59.099	71.0406	88.9592
59.3821	71.018	89.7071
59.6345	71.0123	90.4662
59.8515	71.0139	91.2363
60.0291	71.0068	92.0162
60.1783	70.9908	92.802
60.3135	70.9644	93.5901
60.4379	70.9329	94.3797
60.5477	70.8907	95.171
60.6437	70.8215	95.9622
60.6974	70.8036	96.7602
60.7128	70.8674	97.5575
60.7071	71.0161	98.3436
60.6885	71.2512	99.108
60.6706	71.5589	99.8463
60.6315	71.8668	100.584
60.5164	72.1452	101.325
60.2869	72.3743	102.056
59.953	72.5193	102.768
59.565	72.592	103.464
59.1322	72.5933	104.137
58.6391	72.4765	104.756
58.1169	72.1699	105.279
57.6656	71.7138	105.757
57.2144	71.2577	106.235
56.8009	70.8021	106.746
56.4261	70.3648	107.301
63.7055	85.9117	55.0371
63.1019	85.6503	55.4925
62.5513	85.5284	56.0599
62.0473	85.3856	56.6645
61.5462	85.1025	57.2202
61.0372	84.7767	57.7444
60.6113	84.4117	58.3148
60.2232	84.096	58.9391
59.8705	83.8015	59.5939
59.5285	83.5114	60.2565
59.2051	83.2309	60.9322
58.9159	82.9383	61.6183
58.6635	82.6169	62.3061
58.4666	82.3023	63.0148
58.296	81.9832	63.7283
58.1342	81.6603	64.4421
58.0124	81.3426	65.1662
57.9013	81.0176	65.8887
57.7083	80.655	66.5752
57.4512	80.2789	67.2327
57.1512	79.9003	67.8705
56.8497	79.5171	68.5047
56.5708	79.1089	69.1337
56.3225	78.6717	69.7559
56.1241	78.2203	70.3859
55.9712	77.7688	71.0284
55.9621	77.2669	71.6512
56.039	76.7428	72.2508
56.196	76.1988	72.8159
56.3799	75.6235	73.3406
56.5571	75.0491	73.8685
56.7778	74.4698	74.3741
57.0908	73.9583	74.9036
57.3689	73.5634	75.5414
57.4866	73.2361	76.2619
57.4723	72.9623	77.0134
57.467	72.7901	77.7946
57.4291	72.6275	78.577
57.3553	72.4627	79.3564
57.2535	72.2938	80.1317
57.2208	72.0929	80.9053
57.2411	71.8847	81.6775
57.2866	71.6853	82.4509
57.3578	71.4967	83.2251
57.4918	71.2997	83.9888
57.6636	71.1079	84.7462
57.8891	70.948	85.497
58.1753	70.8098	86.2311
58.4922	70.6572	86.9497
58.8183	70.5483	87.672
59.1347	70.4839	88.4039
59.4408	70.4518	89.1424
59.7258	70.4472	89.8899
59.976	70.4467	90.6497
60.1871	70.4407	91.4214
60.3625	70.4239	92.2017
60.5078	70.3956	92.9879
60.6272	70.3518	93.7777
60.7285	70.2845	94.5684
60.8206	70.1933	95.3579
60.905	70.1081	96.1488
60.9298	70.1163	96.9484
60.8955	70.2562	97.7353
60.844	70.5082	98.4929
60.8026	70.8187	99.229
60.7733	71.1774	99.9435
60.7204	71.5173	100.666
60.5841	71.8126	101.397
60.3484	72.0583	102.121
60.0089	72.2063	102.83
59.6248	72.2582	103.529
59.2406	72.31	104.229
58.823	72.2627	104.91
58.3643	72.0934	105.543
57.8929	71.7342	106.081
57.5342	71.2217	106.579
57.2303	70.7699	107.165
56.9543	70.3372	107.779
61.7911	84.9394	56.3655
61.3141	84.5316	56.8616
60.9069	84.0797	57.3813
60.5496	83.7014	57.9889
60.2035	83.3672	58.628
59.8961	83.0756	59.3067
59.5825	82.8269	59.9993
59.2835	82.5511	60.6882
59.0257	82.2568	61.386
58.8129	81.9399	62.0891
58.596	81.6344	62.7959
58.3581	81.2938	63.4795
58.1201	80.9189	64.145
57.8723	80.5507	64.8106
57.5881	80.171	65.4548
57.2832	79.7859	66.0863
56.9371	79.4232	66.7097
56.5759	79.0632	67.3261
56.2165	78.7109	67.948
55.8736	78.3361	68.566
55.5847	77.9216	69.1862
55.347	77.5029	69.8251
55.2087	77.0924	70.4977
55.1368	76.6974	71.1897
55.1466	76.3182	71.894
55.235	75.9617	72.6048
55.3998	75.6365	73.3168
55.6317	75.3553	74.029
55.9228	75.0954	74.7274
56.2527	74.8177	75.4012
56.5642	74.5686	76.0947
56.7621	74.3595	76.841
56.7338	74.2071	77.6259
56.668	74.0763	78.4124
56.672	73.9188	79.1967
56.7308	73.7373	79.9736
56.7845	73.5413	80.7474
56.8412	73.3465	81.5212
56.8982	73.1599	82.2971
56.988	72.9707	83.0692
57.1473	72.805	83.8354
57.314	72.6272	84.5974
57.5153	72.4189	85.3431
57.7783	72.2225	86.0727
58.084	71.9973	86.7768
58.3962	71.807	87.4884
58.7055	71.677	88.2147
59.02	71.6115	88.9473
59.303	71.5712	89.6945
59.5554	71.5472	90.4533
59.8078	71.5233	91.212
60.0246	71.5057	91.9819
60.1921	71.4959	92.7641
60.335	71.4844	93.5511
60.4672	71.4772	94.3401
60.59	71.4845	95.1306
60.6997	71.5016	95.9229
60.807	71.4901	96.7155
60.8947	71.4924	97.5107
60.9556	71.5605	98.3055
60.9938	71.7219	99.0881
61.0248	71.9726	99.8472
61.0628	72.2777	100.586
61.0725	72.5622	101.333
61.0217	72.8292	102.086
60.9033	73.0777	102.837
60.6879	73.2673	103.584
60.3627	73.3914	104.304
59.9783	73.4731	105.001
59.5578	73.5253	105.679
59.2175	73.5541	106.403
59.0105	73.5497	107.176
59.0272	73.5289	107.975
59.0529	73.4568	108.771
59.0397	73.5154	109.569
62.759	85.2675	55.0221
62.1852	85.1555	55.5682
61.671	85.1243	56.1803
61.179	84.8163	56.7308
60.736	84.4568	57.2916
60.384	84.1438	57.9382
60.034	83.8638	58.6008
59.6982	83.5882	59.2726
59.3669	83.3282	59.9528
59.0537	83.0791	60.6455
58.7728	82.8134	61.3459
58.5201	82.5159	62.0441
58.32	82.2231	62.7613
58.1452	81.9239	63.4823
57.9549	81.6076	64.1921
57.8074	81.299	64.9153
57.674	80.9838	65.6384
57.4861	80.6405	66.3361
57.2611	80.294	67.0211
56.9888	79.9409	67.6854
56.6871	79.5792	68.332
56.41	79.1976	68.9782
56.1681	78.785	69.6195
55.9765	78.3483	70.2618
55.8267	77.9308	70.9276
55.8154	77.4758	71.5855
55.9021	76.9853	72.2116
56.0671	76.4869	72.8151
56.2957	75.958	73.3701
56.5227	75.4121	73.9091
56.7682	74.8554	74.4286
57.0907	74.3408	74.9493
57.3846	73.9582	75.5875
57.5331	73.6581	76.314
57.5233	73.4045	77.0727
57.4779	73.2527	77.8568
57.4056	73.1042	78.6396
57.3169	72.9416	79.4178
57.2211	72.7581	80.1906
57.2113	72.5402	80.9603
57.2321	72.3276	81.7312
57.2756	72.119	82.5023
57.3461	71.922	83.2745
57.4865	71.7312	84.0386
57.6575	71.5425	84.797
57.8832	71.3816	85.5474
58.1622	71.2358	86.2829
58.47	71.0714	87.0028
58.7874	70.9369	87.7247
59.0925	70.8502	88.4592
59.3868	70.8083	89.2019
59.6627	70.7968	89.9527
59.9038	70.7951	90.7155
60.1075	70.791	91.4891
60.274	70.7799	92.2716
60.4123	70.7606	93.0593
60.537	70.7331	93.849
60.6478	70.6938	94.6403
60.747	70.6336	95.4319
60.8304	70.5748	96.2253
60.8682	70.5923	97.0242
60.8653	70.717	97.8145
60.8565	70.9339	98.5844
60.8506	71.2258	99.3293
60.851	71.5704	100.051
60.8251	71.8914	100.784
60.7063	72.1746	101.522
60.4678	72.3985	102.252
60.1219	72.5378	102.96
59.7274	72.5917	103.654
59.3001	72.5641	104.33
58.8727	72.5365	105.005
58.3988	72.4143	105.638
57.9142	72.1538	106.219
57.5269	71.6861	106.74
57.2053	71.2513	107.329
56.8983	70.8354	107.94
61.9141	85.1211	56.0825
61.4324	84.7353	56.5915
60.9815	84.3286	57.1124
60.6276	83.9407	57.7159
60.2764	83.6011	58.3495
59.9477	83.309	59.0178
59.6472	83.0463	59.7111
59.3415	82.7832	60.402
59.0607	82.5113	61.1
58.8237	82.204	61.7995
58.6245	81.9034	62.5137
58.4135	81.5869	63.2175
58.1812	81.2279	63.8936
57.9737	80.871	64.5788
57.7358	80.5073	65.2505
57.4725	80.1276	65.9035
57.179	79.7605	66.5509
56.8452	79.4074	67.1864
56.518	79.0458	67.8206
56.191	78.672	68.4479
55.9072	78.2602	69.0722
55.6636	77.8197	69.694
55.4816	77.3853	70.3407
55.4058	76.9345	70.9972
55.3841	76.5049	71.6717
55.4487	76.0808	72.347
55.5883	75.6678	73.0177
55.7831	75.2971	73.6994
56.033	74.9735	74.387
56.3672	74.6346	75.03
56.6801	74.3183	75.6949
56.8778	74.0583	76.4252
56.9051	73.8494	77.197
56.8204	73.7343	77.9841
56.8073	73.591	78.771
56.8177	73.4155	79.5515
56.8209	73.2112	80.325
56.8737	72.9876	81.0913
56.9141	72.7867	81.8646
56.9804	72.5905	82.6373
57.0919	72.4049	83.4074
57.2548	72.2255	84.1699
57.4298	72.0343	84.9267
57.6651	71.8472	85.668
57.9494	71.6649	86.3933
58.2633	71.4677	87.1022
58.5854	71.3159	87.8186
58.8976	71.2244	88.5494
59.1946	71.1794	89.2909
59.4682	71.1653	90.0425
59.7057	71.1598	90.8065
59.9039	71.1541	91.5815
60.067	71.1421	92.3646
60.2071	71.1226	93.152
60.3394	71.0978	93.9406
60.4597	71.0736	94.7311
60.5656	71.0303	95.5229
60.648	70.9857	96.3174
60.6925	70.9976	97.1161
60.707	71.0919	97.9103
60.7043	71.277	98.6886
60.6978	71.5429	99.4431
60.6882	71.8515	100.181
60.6324	72.1405	100.925
60.4698	72.3904	101.667
60.1904	72.576	102.394
59.911	72.7617	103.12
59.5483	72.8753	103.824
59.1348	72.9335	104.506
58.6744	72.9436	105.16
58.1681	72.8895	105.777
57.6544	72.7502	106.375
57.1524	72.4941	106.942
56.7418	72.1837	107.555
61.954	84.9934	56.3553
61.4735	84.563	56.8285
61.05	84.0947	57.3197
60.674	83.6814	57.8923
60.3211	83.3214	58.5134
60.0117	83.0153	59.1847
59.6929	82.7544	59.8705
59.3854	82.4756	60.5544
59.122	82.1799	61.2495
58.8969	81.8594	61.9471
58.6644	81.5526	62.6483
58.4135	81.2167	63.3297
58.157	80.8359	63.9848
57.8879	80.4612	64.6384
57.581	80.081	65.2719
57.2558	79.6906	65.8898
56.8836	79.3137	66.4893
56.5007	78.9538	67.0925
56.1156	78.6049	67.7007
55.7323	78.2524	68.3081
55.4054	77.8628	68.9256
55.1341	77.4691	69.567
54.9739	77.0893	70.2526
54.8869	76.7276	70.9609
54.8619	76.3988	71.6897
54.9241	76.096	72.4276
55.0695	75.841	73.1718
55.298	75.6134	73.9039
55.5821	75.389	74.6173
55.9049	75.1714	75.3162
56.2394	74.9465	76.0072
56.5343	74.7636	76.7281
56.609	74.6136	77.5103
56.5619	74.4879	78.299
56.5681	74.3478	79.0866
56.6475	74.1957	79.868
56.7218	74.0215	80.6452
56.7911	73.8441	81.4222
56.8683	73.6744	82.2002
56.974	73.5175	82.9775
57.1286	73.3699	83.7484
57.298	73.2139	84.5146
57.4821	72.9996	85.263
57.7306	72.7693	85.9877
58.0183	72.5465	86.7002
58.3248	72.3341	87.408
58.6291	72.1873	88.1331
58.9463	72.1104	88.8635
59.2313	72.0531	89.6088
59.4855	72.0119	90.3663
59.7074	71.9763	91.134
59.873	71.9647	91.9166
60.012	71.9464	92.7042
60.1416	71.9391	93.4936
60.2652	71.9589	94.2838
60.3801	72.0103	95.0738
60.4968	72.0312	95.865
60.6018	72.0307	96.6581
60.6831	72.0652	97.4532
60.7382	72.1757	98.2436
60.7898	72.354	99.0218
60.8199	72.5615	99.7938
60.8499	72.769	100.566
60.8271	72.9834	101.336
60.738	73.2002	102.101
60.5802	73.3974	102.86
60.3345	73.536	103.609
60.0003	73.6335	104.329
59.6016	73.7022	105.019
59.1635	73.764	105.686
58.7661	73.8133	106.378
58.474	73.8737	107.121
58.3673	73.9964	107.904
58.2789	74.0807	108.695
58.1985	74.2517	109.472
58.1247	74.4592	110.241
61.984	84.9921	56.3926
61.5027	84.5569	56.8605
61.079	84.0833	57.3465
60.6994	83.6615	57.9104
60.3457	83.2966	58.5282
60.0353	82.9872	59.1975
59.7137	82.7255	59.8817
59.4058	82.4441	60.5644
59.1437	82.1449	61.2584
58.9159	81.8233	61.9546
58.6794	81.5151	62.654
58.4242	81.1771	63.3327
58.165	80.7946	63.9857
57.8889	80.4171	64.6348
57.5746	80.0347	65.2632
57.2407	79.6411	65.8745
56.8591	79.2603	66.4655
56.4717	78.9	67.0656
56.0772	78.5524	67.6686
55.6836	78.2039	68.2716
55.347	77.8208	68.888
55.0685	77.4334	69.5301
54.9052	77.0633	70.2203
54.8149	76.7128	70.9338
54.7838	76.3962	71.6678
54.8399	76.1062	72.4113
54.9812	75.8698	73.1624
55.209	75.6611	73.9003
55.4924	75.4481	74.6175
55.814	75.2379	75.3192
56.1482	75.0222	76.0133
56.4584	74.8498	76.7302
56.557	74.7041	77.5106
56.5245	74.5789	78.3001
56.5384	74.4426	79.0883
56.6184	74.2997	79.8714
56.6921	74.1323	80.6501
56.7639	73.9603	81.4281
56.8475	73.7963	82.2067
56.9598	73.649	82.9849
57.1161	73.5084	83.7568
57.2875	73.3608	84.5242
57.4757	73.1585	85.2749
57.7219	72.9157	85.9964
58.0061	72.6907	86.7095
58.312	72.4759	87.4168
58.6196	72.3268	88.1401
58.9371	72.2507	88.8705
59.2201	72.1942	89.6166
59.4729	72.1529	90.3745
59.6945	72.1181	91.1424
59.8601	72.1106	91.925
60.0007	72.0959	92.7124
60.1328	72.0942	93.5015
60.2597	72.1195	94.2909
60.3785	72.1688	95.0805
60.4939	72.1916	95.8718
60.5974	72.1949	96.6651
60.6779	72.2307	97.4602
60.7351	72.3361	98.2512
60.7934	72.5018	99.0316
60.8242	72.6917	99.8082
60.855	72.8815	100.585
60.8288	73.0824	101.359
60.7394	73.2848	102.127
60.5794	73.4716	102.889
60.3355	73.6027	103.639
60.0041	73.6992	104.361
59.6066	73.771	105.051
59.1748	73.8397	105.721
58.7831	73.9027	106.416
58.5112	73.9867	107.164
58.41	74.1257	107.945
58.3308	74.2171	108.736
58.2567	74.391	109.513
63.068	85.1737	55.0854
62.4994	85.1049	55.6439
61.9764	85.1842	56.2441
61.4753	84.8612	56.7775
60.995	84.5011	57.3064
60.6135	84.1761	57.9299
60.254	83.8589	58.5704
59.9125	83.5782	59.2371
59.5893	83.3095	59.9178
59.2878	83.0414	60.6086
59.001	82.7659	61.3028
58.7535	82.4523	61.9958
58.5603	82.1472	62.7097
58.3782	81.8295	63.421
58.1765	81.4821	64.1128
58.0227	81.1457	64.8222
57.8534	80.7972	65.5221
57.6315	80.4204	66.192
57.3786	80.0465	66.8525
57.0779	79.679	67.4963
56.7654	79.3034	68.1298
56.4703	78.905	68.7576
56.2012	78.4758	69.3768
55.9876	77.9998	69.9832
55.8122	77.5373	70.612
55.7498	77.0393	71.235
55.7592	76.5406	71.8605
55.853	76.0418	72.4788
56.0002	75.5185	73.0658
56.1663	75.0329	73.6794
56.3942	74.5502	74.2753
56.705	74.0893	74.8506
56.9958	73.6869	75.4779
57.1658	73.3531	76.1848
57.1972	73.068	76.9316
57.2305	72.898	77.7127
57.2456	72.75	78.4987
57.215	72.5855	79.281
57.1248	72.4101	80.0563
57.1039	72.2052	80.8293
57.1303	71.9968	81.6012
57.1845	71.7969	82.374
57.2568	71.6108	83.1487
57.3912	71.4187	83.9136
57.56	71.2259	84.6714
57.7779	71.0546	85.4218
58.0548	70.9248	86.1611
58.3678	70.7677	86.8803
58.6978	70.6455	87.5988
59.0148	70.575	88.3299
59.3241	70.5402	89.0669
59.6111	70.5344	89.8136
59.864	70.5351	90.5726
60.0806	70.5322	91.3427
60.2594	70.5175	92.1223
60.4068	70.4932	92.9083
60.5318	70.4535	93.6974
60.6389	70.3941	94.488
60.7337	70.3114	95.2781
60.8212	70.2216	96.0682
60.8513	70.2156	96.8676
60.8236	70.3277	97.6592
60.7706	70.5468	98.4268
60.7187	70.83	99.1732
60.6721	71.1679	99.8968
60.601	71.4958	100.623
60.4531	71.7833	101.355
60.2129	72.0256	102.078
59.8784	72.1756	102.79
59.4963	72.2325	103.49
59.0773	72.1821	104.17
58.6126	71.962	104.783
58.148	71.742	105.396
57.6945	71.3357	105.914
57.3175	70.8469	106.423
56.9847	70.3818	106.983
61.8341	85.1765	55.8175
61.3659	84.8086	56.3517
60.9146	84.4198	56.8858
60.5595	84.0164	57.4783
60.2195	83.688	58.1237
59.8879	83.3976	58.7914
59.5836	83.1275	59.4802
59.2742	82.8814	60.1756
58.982	82.6304	60.8768
58.7257	82.3458	61.5792
58.5166	82.0547	62.2944
58.3262	81.7602	63.0134
58.104	81.4296	63.7072
57.9034	81.0914	64.4039
57.7061	80.7552	65.1025
57.4783	80.3991	65.7817
57.2336	80.0465	66.4568
56.9521	79.7062	67.1238
